ply
format ascii 1.0
comment Created by Open3D
element vertex 730
property double x
property double y
property double z
property double nx
property double ny
property double nz
property uchar red
property uchar green
property uchar blue
end_header
-5.33182 -6.84906 2.99019 -0.290464 -0.933132 -0.211884 124 109 65
5.54143 -2.83623 7.15591 0.0893793 -0.099055 0.965892 159 165 151
-2.72458 -7.14064 4.54285 -0.0869449 -0.978436 -0.18736 131 105 69
6.44043 -3.26957 6.56177 0.579607 -0.449321 0.679828 255 255 255
-6.93675 -4.33742 4.54891 -0.991663 -0.0613558 -0.11017 128 106 64
-0.842105 1.84834 3.88299 0.856408 0.128968 0.499933 69 58 32
-4.40978 -1.90854 7.58156 0.0924377 -0.00968002 0.995406 72 92 48
-6.42817 -3.42948 6.2395 -0.898428 -0.177655 0.311274 99 96 65
-0.639906 -6.4608 1.99102 -0.0388111 -0.982038 -0.184647 127 103 62
1.1446 -5.94419 7.31233 0.0147373 -0.249352 0.862963 75 89 62
0.581252 -5.41205 7.35311 0.0195877 -0.0346421 0.995293 69 82 54
1.03921 2.6985 7.34749 0.219242 -0.464314 0.854674 58 59 33
0.0908123 4.07985 7.21873 0.0371778 -0.196687 0.97608 67 84 61
-2.66964 0.0415299 5.74903 0.973505 0.0752647 0.215923 86 93 62
-6.5796 -4.30312 2.23728 -0.995443 -0.0651844 -0.0696037 127 98 61
2.57577 6.95641 6.07159 0.0303091 0.930856 0.359515 147 145 92
-3.94532 -2.94211 7.30326 0.0341962 0.000392464 0.996623 67 80 50
-6.06805 -3.92601 6.31078 -0.849845 -0.311477 0.332001 117 112 79
-3.89299 -2.42002 7.30093 0.0739396 0.0162158 0.995268 66 81 53
-0.600506 -6.89856 3.69803 -0.0434621 -0.983184 -0.177372 122 98 59
-5.89991 -5.43624 5.728 -0.525576 -0.50131 0.639758 62 68 46
4.6976 6.79648 2.43511 0.0968465 0.978101 -0.167021 129 107 63
-4.96727 -2.92981 7.314 -0.0111283 -0.0164136 0.997911 61 74 46
-5.93652 0.0940644 7.34294 -0.211736 0.00322624 0.963258 87 106 76
-4.45133 -6.93349 3.6243 0.0643813 -0.98679 -0.148662 134 114 68
-6.65299 -4.01408 2.52365 -0.995899 -0.0292593 -0.0856105 127 98 61
1.55195 -5.40756 7.31217 0.00478211 -0.0426808 0.995863 68 82 52
6.4955 -4.90363 5.70995 0.527674 -0.220532 0.70049 165 166 159
-6.8399 -2.44598 3.29624 -0.987265 0.110033 -0.113598 121 102 62
-2.44533 -4.92888 7.26422 -0.0464108 -0.0132094 0.978323 80 107 62
-2.17727 0.748188 5.23171 0.712371 -0.563616 0.418167 40 36 23
6.89856 -0.600506 3.69803 0.983184 -0.0434621 -0.177372 122 98 59
6.03471 -6.35284 5.19576 0.622199 -0.440008 0.622511 51 50 26
0.551137 6.0579 7.31328 0.0118692 0.222154 0.957625 108 132 96
-3.76979 -6.55156 2.38002 0.0359691 -0.985089 -0.168243 131 104 64
6.99685 0.0579009 4.44558 0.991168 0.0110977 -0.131768 116 97 61
-2.43119 4.06585 7.31753 0.0166778 -0.0569347 0.996438 63 77 49
-4.48652 -5.45908 6.31623 -0.347806 -0.558569 0.74433 149 168 115
-5.82392 2.50862 7.12584 -0.220828 0.220077 0.949756 255 255 255
-6.94578 -5.73285 4.31319 -0.540551 -0.797509 0.267925 41 37 19
-6.43582 -4.39335 5.83266 -0.801161 -0.193288 0.438813 89 90 64
7.19975 -4.82553 4.34857 0.991692 0.0256568 -0.126053 127 110 67
-1.92578 -3.45327 6.91844 0.0251611 0.00886558 0.998252 255 255 245
-2.41293 -6.89756 3.17122 -0.109331 -0.972395 -0.206051 130 104 66
-4.36996 6.76378 3.54677 -0.0588607 0.989091 -0.135033 131 106 63
-6.80819 -5.84478 4.612 -0.786305 -0.602838 0.0721305 116 99 61
2.6713 1.77519 7.43134 -0.0276199 0.0194362 0.99943 48 49 28
-6.46929 -5.90835 4.30473 -0.595173 -0.548156 0.137535 74 60 37
-4.00169 -7.25479 4.66695 0.0147967 -0.986295 -0.161146 131 105 68
1.04846 3.07192 6.84871 -0.135634 -0.541992 0.806026 209 228 197
-5.81958 -6.30746 4.18368 -0.215468 -0.972722 0.0859383 64 55 34
-0.414116 -6.90552 5.72228 0.0705194 -0.989446 0.123277 113 99 63
-3.60575 -6.46056 5.90791 -0.0782792 -0.937941 0.264023 51 48 30
-3.48495 6.70383 2.98254 0.0160206 0.996484 -0.0822393 126 102 65
2.0598 -6.80064 4.168 0.0080998 -0.99946 -0.02839 127 106 64
5.5151 -4.38995 6.62348 0.665817 -0.426212 0.609881 61 60 38
6.65534 -1.56943 6.45307 0.969365 -0.048187 0.146986 106 95 63
-3.14291 -6.71153 2.78835 -0.0884573 -0.97303 -0.213045 130 108 68
-6.17564 -3.44862 6.08619 -0.985683 -0.165244 0.0335109 109 101 73
-6.95947 2.81098 3.54244 -0.97091 0.120571 -0.206874 129 105 69
5.57438 -6.96545 4.36295 0.45256 -0.761779 0.0596024 81 69 41
2.58542 -5.38352 7.32306 -0.00159305 -0.0615031 0.992814 67 77 49
-3.54943 -6.94684 3.66161 -0.0595769 -0.976332 -0.207911 131 106 67
3.66319 6.22299 5.85517 -0.017048 0.999814 -0.0090254 47 47 29
6.75663 1.47756 5.78208 0.996042 0.00427643 0.0878266 119 104 64
-0.903001 -1.43135 3.39199 -0.126605 -0.344195 0.927944 242 211 191
-6.26422 -3.36531 6.64424 -0.828546 -0.32319 0.374249 100 92 64
-1.57276 -6.7914 3.03816 -0.0363781 -0.982208 -0.184237 126 102 60
5.71993 -2.9509 6.98289 0.274929 -0.321859 0.905339 255 255 255
6.38923 6.34423 4.59227 0.487593 0.850662 0.196537 112 97 66
-6.98512 -5.41591 4.41271 -0.983007 -0.107611 -0.148721 120 100 63
-0.985371 6.48625 7.19682 -0.00958651 0.814006 0.570885 119 120 95
-6.84806 1.20715 6.26547 -0.96957 -0.0276637 0.240739 114 108 71
3.0484 6.95273 3.74511 0.103979 0.973392 -0.204199 121 103 65
5.81958 6.30746 4.18368 0.215468 0.972722 0.0859383 64 55 34
-1.16884 -6.93468 3.47913 -0.0291966 -0.982174 -0.185691 125 105 62
5.03751 2.07922 7.30581 -0.0177513 0.00631036 0.998487 65 81 50
7.09941 -1.8149 4.91459 0.990455 0.11415 -0.0772532 124 100 64
6.06742 -5.88611 5.20463 0.741146 -0.486714 0.245863 69 70 54
-2.48285 6.83126 4.74495 -0.00938087 0.999457 0.0265994 128 105 65
-2.45114 -7.15232 4.28976 -0.0741702 -0.978804 -0.190897 129 104 65
-1.39569 4.38076 7.59853 -0.0380457 -0.0990593 0.994283 78 95 51
-0.933219 6.85788 4.77208 -0.07834 0.995448 0.0100349 116 102 62
0.980445 -4.94052 7.3095 -0.022094 0.00972974 0.998234 63 76 49
3.15073 1.60658 7.23378 -0.295195 -0.206373 0.906311 63 75 50
-6.65548 -0.66632 2.73449 -0.979971 0.0787369 -0.182912 124 101 61
-0.334427 -1.58365 3.50449 -0.308203 -0.379337 0.871601 85 60 43
-6.50947 -1.91255 2.24991 -0.983858 0.107177 -0.143304 125 101 59
-6.86889 -0.539075 5.30454 -0.99182 -0.0938748 0.0858778 119 103 63
-2.74206 -0.122868 5.40754 0.934795 -0.167076 0.313439 63 72 47
6.85152 1.48405 3.60217 0.988074 -0.0785302 -0.132446 125 101 62
-6.65686 -3.76285 2.75565 -0.996132 -0.00105859 -0.0878629 126 102 66
0.0673576 2.65751 5.30078 -0.0205896 -0.967645 0.21236 77 84 57
-2.50805 1.07659 6.15616 0.795672 -0.41797 0.363715 146 159 93
-4.42666 1.04428 7.23464 0.11672 0.0695398 0.987167 75 94 64
-6.17971 -6.19349 4.42986 -0.319869 -0.93783 0.134754 59 47 29
-1.8149 -7.09941 4.91459 0.11415 -0.990455 -0.0772532 124 100 64
-0.904042 -7.04826 4.63131 0.0533166 -0.991892 -0.10913 117 98 61
2.09704 -5.97935 7.26118 -0.010729 -0.0307644 0.993466 68 76 47
-1.47756 6.75663 5.78208 -0.00427643 0.996042 0.0878266 119 104 64
-1.96117 -2.45647 6.80917 0.412971 0.533747 0.70231 222 223 211
4.54092 0.0569343 7.27702 -0.109181 -0.0372138 0.991554 63 79 54
-6.38511 -6.28335 4.8135 -0.616777 -0.657617 0.178611 121 111 78
-2.06615 1.56475 6.75685 0.764987 -0.236223 0.599161 75 70 48
-6.80487 -2.75803 2.69981 -0.984332 0.136144 -0.112048 114 98 58
-3.4877 -3.44454 7.23644 0.0873516 -0.0146851 0.991065 70 85 54
-1.97156 6.71686 6.31705 -0.0170272 0.983313 0.175702 118 108 67
-6.39609 -5.57388 4.24817 -0.98796 0.148713 0.0426541 124 99 60
1.33094 -6.74466 6.55612 -0.0011536 -0.979409 0.201881 114 105 69
-6.82728 -3.01125 3.27729 -0.994541 0.0606697 -0.0826732 118 99 59
6.77753 -5.05182 5.3509 0.919346 -0.294939 0.26041 40 45 27
-6.70383 -3.48495 2.98254 -0.996484 0.0160206 -0.0822393 126 102 65
1.12909 -5.44181 7.30635 -0.0126763 -0.0426396 0.998031 64 77 50
-1.01714 -6.6771 6.92687 -0.00400496 -0.871747 0.48994 147 154 119
-2.39505 -5.43305 7.23462 -0.0581364 -0.0531425 0.984109 84 132 83
-5.40428 5.98676 5.68396 -0.508211 0.558677 0.604563 64 71 48
3.8367 -3.27621 7.01856 -0.0128629 0.204638 0.978753 61 80 53
6.32385 -3.16552 1.50438 0.9882 -0.0146818 -0.152465 123 103 65
-6.4685 -5.36771 4.69351 -0.985942 0.159403 0.0440635 107 91 62
-1.90629 -4.09128 7.60752 -0.12836 -0.23596 0.96324 104 122 61
4.08358 -6.00959 6.29769 0.339985 -0.792739 0.429572 116 115 80
5.71699 3.65596 6.96305 0.659286 0.421951 0.621269 118 112 66
-5.28701 -6.69415 5.29171 -0.306008 -0.915124 0.2625 52 48 33
5.95266 -5.42579 5.32807 0.897422 -0.323491 0.282939 37 40 26
-1.77247 -7.17931 4.42991 0.00791263 -0.986817 -0.161644 125 101 60
-6.75149 -3.20994 3.32162 -0.996504 0.0225259 -0.0804497 118 101 62
-4.38167 -3.36271 7.31735 -0.0185613 -0.0209633 0.997251 62 77 47
-0.45969 6.47277 7.16926 0.0258807 0.41058 0.742042 71 75 50
0.0579006 -6.99685 4.44558 0.0110977 -0.991168 -0.131768 116 97 61
0.486184 -2.82975 5.73205 -0.017077 0.946729 0.312328 70 74 51
6.80156 -4.57913 2.34654 0.989399 -0.0236914 -0.143277 130 107 62
-6.89729 2.53418 3.28762 -0.971267 0.114935 -0.208399 132 105 68
-6.82572 -1.87171 3.32335 -0.986715 0.0960119 -0.130148 125 104 63
6.44624 0.55476 7.18875 0.321837 -0.0030724 0.873216 73 80 54
-5.36448 -5.25359 6.13725 -0.377929 -0.495535 0.771576 124 140 95
6.85349 2.96605 4.25665 0.999354 0.0237475 -0.0206632 128 105 63
-6.80059 -2.50865 2.80791 -0.982486 0.140007 -0.122963 119 100 59
0.609726 -4.44468 7.63478 0.0353294 0.0183614 0.997678 77 96 53
-4.36074 2.98248 6.99764 0.1027 -0.183885 0.977386 69 82 46
0.700253 -6.90611 3.88273 -0.0828416 -0.983294 -0.162081 124 100 62
2.55633 -6.81502 5.27118 0.0167127 -0.998114 0.0564615 126 108 64
-6.75915 -1.27575 3.19582 -0.980744 0.11142 -0.160396 126 98 61
4.12826 -3.4565 7.28868 0.11245 0.0663909 0.970049 75 94 53
7.24927 -3.23875 5.23546 0.992358 -0.0168095 -0.0685602 120 109 75
6.93454 0.542429 4.26068 0.991694 0.00781324 -0.118463 120 100 62
3.5018 5.99211 6.64762 0.336232 0.637669 0.614869 119 134 84
6.6261 1.49582 6.77653 0.968617 -0.0288057 0.198612 112 104 69
-1.2931 -7.06582 4.50889 0.0352197 -0.989561 -0.139743 119 100 60
-6.85519 -0.946802 4.32915 -0.995667 0.00246188 -0.088537 121 102 63
-6.92332 -0.275545 3.59196 -0.981198 0.0660537 -0.181348 120 100 62
-0.0330148 6.89909 5.69241 -0.0842233 0.988494 0.12523 117 98 63
-6.84155 -2.50506 3.78823 -0.994353 0.0649674 -0.0765067 127 103 62
-6.85124 -1.36027 3.71386 -0.988546 0.0734691 -0.131733 125 101 63
6.72574 -3.11047 6.24899 0.773514 -0.275367 0.568973 255 255 254
-0.452536 6.9592 4.27414 -0.0199529 0.990816 -0.121161 121 100 62
-6.90761 -0.0406436 3.66332 -0.982413 0.0533276 -0.178944 122 99 61
3.93018 -1.02706 7.0172 -0.147863 -0.113746 0.98222 172 176 128
1.58365 -0.334427 3.50449 0.379337 -0.308203 0.871601 85 60 43
-1.91214 -6.88367 6.29837 0.0338371 -0.952536 0.300514 137 120 79
-6.91723 -0.878824 3.86603 -0.985704 0.0742718 -0.147994 123 100 62
1.52456 -2.03416 5.7453 -0.755686 0.548795 0.322551 65 94 76
-6.87467 -2.03303 3.90148 -0.992815 0.069118 -0.097374 122 103 61
-1.24826 -7.00425 4.78452 0.142201 -0.98847 -0.0520247 117 100 63
-6.80753 -2.38704 4.29838 -0.999458 -0.0120683 -0.0172584 129 105 64
6.86199 0.554016 4.8552 0.990803 0.13019 -0.00300843 113 100 62
4.72794 -6.94541 4.26512 0.0262034 -0.987754 -0.153803 133 109 62
2.65593 -6.49035 5.89158 -0.142496 -0.988766 -0.0016496 101 76 45
1.02706 3.93018 7.0172 0.113746 -0.147863 0.98222 172 176 128
0.600506 6.89856 3.69803 0.0434621 0.983184 -0.177372 122 98 59
-1.86258 2.92292 6.98351 0.31496 -0.473374 0.820876 128 158 109
2.53749 -3.40358 7.28136 -0.0378199 0.106649 0.990232 76 93 63
1.84834 0.842105 3.88299 0.128968 -0.856408 0.499933 69 58 32
-6.78302 -1.82145 4.29126 -0.998509 -0.0457285 -0.00909827 125 104 63
-6.9592 -0.452536 4.27414 -0.990816 -0.0199529 -0.121161 121 100 62
1.01971 -6.83854 4.77233 0.0833085 -0.995294 0.018757 118 102 62
-0.314153 -4.95911 7.58439 -0.0532454 -0.115141 0.98858 81 95 54
0.650096 -6.64005 6.42839 0.0299162 -0.975269 0.218987 125 107 74
-6.21665 6.3887 5.17211 -0.58988 0.357849 0.723869 42 36 13
-6.83126 -2.48285 4.74495 -0.999457 -0.00938087 0.0265994 128 105 65
2.31005 -6.31671 1.48098 -0.124076 -0.984178 -0.126486 125 105 58
-6.68951 -2.79484 6.05393 -0.97105 -0.107333 0.213404 110 103 65
-2.40425 -0.389175 4.84046 0.86369 0.425562 0.255126 72 73 51
1.156 -2.44273 6.27392 -0.527239 0.721208 0.432223 64 71 49
2.04667 6.4087 6.69796 0.0734892 0.925608 0.152775 106 90 59
1.77247 7.17931 4.42991 -0.00791263 0.986817 -0.161644 125 101 60
0.555678 1.53016 3.45184 0.23072 0.385935 0.892104 161 90 56
7.21126 -2.86026 4.71585 0.979757 -0.0865234 -0.180388 131 106 71
2.52128 -6.31214 1.43141 -0.12942 -0.986681 -0.0985493 122 103 59
7.10161 -3.48376 4.29306 0.980711 -0.0577449 -0.185399 127 108 69
-6.55457 0.0929847 6.84403 -0.942936 0.0469429 0.203154 97 89 59
-0.97813 2.688 6.27166 0.383028 -0.836122 0.386068 70 80 57
6.0735 -0.452418 7.31231 0.196018 -0.0100054 0.963033 92 111 77
3.06092 -6.80833 3.28837 -0.0511338 -0.995032 -0.0821174 118 100 60
-4.02074 -5.1161 6.95001 -0.345873 -0.569959 0.745331 221 219 144
-6.43064 3.43286 1.37864 -0.98787 -0.14708 -0.0497988 130 107 64
4.58007 -4.89486 6.87378 0.513732 -0.369033 0.754483 117 126 81
1.08335 3.56653 7.2736 -0.155015 -0.285322 0.938717 56 66 39
-1.9679 -2.04368 7.45566 0.710516 0.357708 0.60598 48 44 24
0.666319 -6.65548 2.73449 -0.0787369 -0.979971 -0.182912 124 101 61
-3.93877 2.56784 7.43867 -0.0170556 -0.157705 0.987318 152 153 97
-6.85611 -3.46172 3.93274 -0.997981 -0.0147005 -0.0608591 128 105 64
0.525896 7.0401 4.34736 0.00334366 0.98861 -0.150465 115 98 61
2.91682 -6.4236 5.17513 -0.138624 -0.99033 0.00554496 95 80 49
-6.85788 -0.933219 4.77208 -0.995448 -0.07834 0.0100349 116 102 62
-2.61545 0.549551 5.77428 0.922938 -0.234194 0.264438 97 108 74
-6.81054 -3.47298 4.27138 -0.999269 -0.0226026 -0.0278759 130 108 63
5.33182 6.84907 2.99019 0.290464 0.933132 -0.211884 124 109 65
-6.79648 4.6976 2.43511 -0.978101 0.0968465 -0.167021 129 107 63
3.6158 3.58492 7.26841 -0.0679586 0.00507293 0.991654 66 80 50
-0.919978 -4.92542 7.30495 -0.0780135 0.0761971 0.98602 67 83 52
-7.00686 0.0487059 4.35755 -0.989491 0.000637572 -0.142567 115 98 61
-0.430326 -5.9304 7.31821 -0.0282709 -0.178893 0.975606 86 110 76
4.6039 6.08308 5.85109 0.122047 0.78087 0.563093 49 50 32
6.56125 -1.37436 7.09255 0.264971 -0.127871 0.95574 52 53 35
2.63334 -6.80273 2.75386 -0.138076 -0.983409 -0.117505 117 99 59
-4.42107 -2.49434 7.57909 0.0575521 0.0143834 0.99814 73 88 46
3.64693 -6.39455 6.18785 0.226513 -0.856395 0.393415 95 96 66
-6.85349 -2.96605 4.25665 -0.999354 -0.0237475 -0.0206632 128 105 63
-2.90041 -5.41252 7.13496 -0.0977836 -0.0761501 0.956952 158 165 151
-2.82107 -1.80657 6.93785 0.521333 0.386133 0.750881 112 137 94
-2.88871 5.49971 7.28056 -0.0220451 -0.0137095 0.994894 68 75 46
-1.77952 1.60796 6.19762 0.821599 -0.229881 0.507107 95 82 50
-1.09111 1.76554 4.15547 0.868733 0.0949512 0.486094 97 74 44
-4.37372 -0.925221 7.62393 0.0649837 -0.0613192 0.995651 80 99 52
1.56001 -3.43615 7.2506 -0.128007 0.253524 0.944648 69 85 54
3.09152 -6.65462 2.10811 -0.115598 -0.989004 -0.0922447 115 97 58
-3.41914 -4.91829 7.18372 -0.0790018 -0.202015 0.939797 152 164 133
-6.82453 -2.96717 4.63166 -0.999306 -0.0286053 0.0163112 129 108 64
3.76285 -6.65686 2.75565 0.00105859 -0.996132 -0.0878629 126 102 66
-2.93319 -4.44116 7.39734 0.00922819 -0.140009 0.974276 98 122 68
0.158093 -6.91546 3.62764 -0.0596907 -0.981806 -0.180146 121 100 62
-2.41567 6.31442 1.45619 0.126748 0.985429 -0.112517 124 104 59
1.27575 -6.75915 3.19582 -0.11142 -0.980744 -0.160396 126 98 61
-6.8609 -1.54547 4.2001 -0.996465 0.0150149 -0.0822611 126 103 63
2.11434 -6.83805 3.18332 -0.116371 -0.984862 -0.128352 120 103 62
0.495989 -6.53761 6.89102 -0.00341235 -0.949918 0.241927 111 109 74
3.50848 -0.838743 6.96243 -0.271838 -0.0470416 0.958326 148 174 130
-6.35198 -3.91189 6.18897 -0.747755 -0.336716 0.567606 89 89 64
2.50506 -6.84155 3.78823 -0.0649674 -0.994353 -0.0765067 127 103 62
1.97756 1.6582 6.4127 -0.496002 -0.717212 0.485713 70 72 47
2.64782 -6.85016 3.4857 -0.0986504 -0.989986 -0.100972 125 102 62
-3.51186 -6.93567 5.78076 -0.0812901 -0.879437 0.415792 133 124 79
-3.09741 6.81298 4.55295 -0.0419277 0.999108 0.00511314 133 109 64
2.11594 2.10139 7.32418 -0.598426 -0.44108 0.654795 49 48 29
-7.04008 2.64456 5.83074 -0.958123 0.00540816 0.267652 106 95 56
-6.78232 -1.42349 4.76482 -0.996476 -0.0650396 0.0308155 124 103 62
0.48521 -2.3615 4.89048 -0.475711 0.836297 0.270208 73 74 51
1.59347 -5.95571 7.32359 0.0181472 -0.237532 0.961327 75 87 60
0.665254 -2.70589 5.34042 -0.105863 0.955378 0.275766 77 85 61
-1.45154 4.05192 7.31194 0.0288851 -0.119013 0.988196 70 80 52
-2.49694 0.0794336 4.76973 0.851306 -0.238074 0.339795 68 70 48
0.542428 -6.93454 4.26068 0.00781324 -0.991694 -0.118463 120 100 62
-4.90345 0.111673 7.30182 0.0789233 0.0182039 0.995168 63 79 50
6.89462 4.96379 4.10539 0.982763 -0.0173633 -0.184051 131 110 62
-1.93208 -0.98318 4.28962 0.0926574 0.862475 0.462524 88 75 45
-2.96605 6.85349 4.25665 -0.0237475 0.999354 -0.0206632 128 105 63
-3.92135 6.08779 6.3273 -0.327614 0.824743 0.374472 112 108 75
-3.09152 6.65462 2.10811 0.115598 0.989004 -0.0922447 115 97 58
3.48495 -6.70383 2.98254 -0.0160206 -0.996484 -0.0822393 126 102 65
0.0460605 6.46569 7.19445 -0.0127119 0.606787 0.737297 137 152 112
-1.82967 -0.483231 3.61266 -0.24169 0.76066 0.595357 59 49 35
6.16414 -2.45815 6.87561 0.877379 0.00713895 0.26201 94 89 59
2.03303 -6.87467 3.90148 -0.069118 -0.992815 -0.097374 122 103 61
-3.54793 -0.43246 7.11895 0.576199 0.0301437 0.814518 70 78 55
-1.58219 -0.308653 3.31028 -0.388694 0.660229 0.636799 37 30 22
1.59882 -6.8297 4.25609 0.0140614 -0.996773 -0.0544919 126 103 63
-0.386814 6.05451 7.34104 -0.0492062 0.316051 0.843452 78 93 67
-7.08144 2.99849 5.37993 -0.963566 0.0696394 0.235506 97 77 40
-6.69643 4.06009 2.3594 -0.984594 -0.104336 -0.140314 133 107 64
4.01965 1.57921 7.33969 -0.112169 -0.0345776 0.989731 71 83 53
5.55017 -0.411765 7.36301 0.0776173 -0.0444325 0.991653 65 85 56
-1.76903 -0.0483645 3.41313 -0.329095 0.537488 0.77162 59 49 36
4.09429 2.58392 7.30661 -0.0383381 -0.00979352 0.997326 62 76 48
-0.443333 -3.03877 6.70322 0.085697 0.783799 0.604626 134 145 116
0.466832 -5.00926 7.61516 -0.0187806 -0.0994388 0.994491 73 100 53
1.03738 2.51365 5.47096 -0.327835 -0.932266 0.145628 151 232 195
1.17139 -6.82517 4.42454 0.0115423 -0.997883 -0.0640072 123 102 62
1.62281 -4.38948 7.59085 0.0240894 0.0989988 0.994614 78 95 51
5.0491 -2.43353 7.21574 -0.0138097 -0.0312687 0.979517 82 118 66
3.43286 6.43064 1.37864 -0.14708 0.98787 -0.0497988 130 107 64
-2.11374 -0.521495 4.12335 0.441231 0.790337 0.425069 69 74 53
3.46171 -6.85611 3.93274 0.0147005 -0.997981 -0.0608591 128 105 64
-2.05506 1.79906 5.26618 0.763304 -0.623694 0.168443 255 255 255
-1.82145 6.78302 4.29126 -0.0457285 0.998509 -0.00909827 125 104 63
1.53888 -6.77355 4.76081 0.0509367 -0.997222 0.0281227 125 104 62
-1.00273 6.69804 6.26715 -0.0194823 0.986954 0.158462 121 104 67
2.1709 0.549023 4.22655 -0.578746 -0.482583 0.428558 74 76 53
-3.47025 6.55531 5.79615 -0.00711016 0.970191 0.153046 101 95 62
3.47298 -6.81054 4.27138 0.0226026 -0.999269 -0.0278759 130 108 63
-2.41195 -3.98571 7.57154 -0.10944 -0.245623 0.963032 102 118 61
-2.23472 -0.432573 4.17347 0.768807 0.148651 0.434299 77 78 56
2.2548 1.56762 6.59992 -0.592916 -0.613187 0.521969 68 70 48
-5.21847 5.51537 6.08583 -0.437593 0.388395 0.809855 147 169 115
-6.51361 -3.81123 5.44968 -0.988648 0.148354 0.0237819 83 80 48
2.48285 -6.83126 4.74495 0.00938087 -0.999457 0.0265994 128 105 65
-1.874 -2.92917 6.88878 0.210225 0.224072 0.943598 255 255 255
6.31478 0.525488 5.96077 0.973657 -0.226348 0.027545 85 80 50
1.57276 6.7914 3.03816 0.0363781 0.982208 -0.184237 126 102 60
-0.466833 5.00926 7.61516 0.0187806 0.0994388 0.994491 73 100 53
6.82517 1.17139 4.42454 0.997883 0.0115423 -0.0640072 123 102 62
7.17931 -1.77247 4.42991 0.986817 0.00791263 -0.161644 125 101 60
6.65418 -4.0103 1.64281 0.978785 0.202385 -0.0319555 141 108 67
-5.84411 5.88024 5.58953 -0.606885 0.440856 0.616463 57 60 43
-6.29073 6.50739 4.63112 -0.832171 0.52129 0.18475 113 98 66
5.5229 -3.4215 6.87989 0.404638 -0.393626 0.822312 235 245 204
2.72458 7.14064 4.54285 0.0869449 0.978436 -0.18736 131 105 69
6.7914 -4.81607 2.52368 0.966803 -0.170002 -0.190765 128 107 63
-5.85721 6.90955 4.55642 -0.500299 0.865851 0.00133413 121 98 57
6.28763 -2.86151 5.92263 0.998599 -0.00516339 -0.0526665 73 59 34
0.107299 -5.86854 7.34791 0.0639184 -0.251012 0.833368 67 82 55
0.807397 -2.10372 4.86874 -0.711931 0.614183 0.340489 73 75 49
2.96605 -6.85349 4.25665 0.0237475 -0.999354 -0.0206632 128 105 63
2.35256 2.5427 7.00429 -0.327639 -0.184209 0.926671 139 255 221
3.61984 -0.427112 7.62995 -0.00278901 -0.112967 0.99336 51 62 40
-5.97852 -4.96556 5.92395 -0.734284 -0.344832 0.481233 89 99 70
3.56821 -1.41749 6.94695 -0.107857 -0.0519274 0.991558 206 243 177
3.04978 -1.37957 6.83759 -0.404424 0.140543 0.878159 255 255 255
6.7697 3.61939 4.12494 0.998835 0.0260385 -0.04062 130 108 61
2.59183 -6.81253 4.47521 0.0271802 -0.999626 0.00302002 129 104 63
-4.93294 6.14244 5.81343 -0.345344 0.639571 0.555461 70 72 50
-5.37178 -3.93145 7.07607 -0.493362 -0.476542 0.726243 121 121 85
6.66064 -4.25972 1.87557 0.992817 0.0645274 -0.100753 137 109 67
1.91255 -6.50947 2.24991 -0.107177 -0.983858 -0.143304 125 101 59
-6.78534 -4.44989 5.23027 -0.974934 -0.152215 0.162279 117 102 66
-6.89856 0.600505 3.69803 -0.983184 0.0434621 -0.177372 122 98 59
4.10653 0.074821 7.63876 0.0298671 -0.0353776 0.998809 64 79 50
3.97731 -6.8107 3.7187 0.0264054 -0.994213 -0.102842 129 103 62
-6.75 -2.28928 6.21996 -0.982394 -0.0429117 0.176368 118 107 67
5.6144 -3.94226 6.4453 0.494474 -0.459326 0.73653 173 178 122
6.624 -3.91494 2.36971 0.984842 0.0701525 -0.154278 132 106 64
1.05344 2.55899 5.78571 -0.311264 -0.928499 0.198132 142 210 188
0.0483646 -1.76903 3.41313 -0.537488 -0.329095 0.77162 59 49 36
-1.45002 -6.99066 5.6891 0.119498 -0.979575 0.147556 122 103 68
3.07432 -6.83247 4.75753 0.0214379 -0.999364 0.0213594 127 107 65
4.65812 -6.69963 3.25843 -0.00339498 -0.985676 -0.168617 127 107 62
-4.82109 -5.17451 6.35718 -0.329741 -0.5868 0.738059 143 162 108
4.36996 -6.76378 3.54677 0.0588607 -0.989091 -0.135033 131 106 63
1.68934 0.104392 3.37922 0.365414 -0.557643 0.73816 52 42 31
3.81123 -6.51361 5.44968 -0.148354 -0.988648 0.0237819 83 80 48
-1.84834 -0.842105 3.88299 -0.128968 0.856408 0.499933 69 58 32
6.89729 -2.79332 6.09518 0.892523 -0.116801 0.431279 189 184 129
4.96379 -6.89462 4.10539 -0.0173633 -0.982763 -0.184051 131 110 62
-6.28439 -6.22529 5.16777 -0.374435 -0.604292 0.702635 44 38 14
-5.43877 2.51739 7.2085 -0.0390916 0.0674344 0.977946 117 135 105
-6.73309 1.61084 6.71401 -0.907111 0.0172599 0.418925 145 139 87
4.1586 -6.61629 2.38047 0.0472218 -0.995671 -0.0776071 127 98 61
2.04771 -2.43357 6.79622 -0.508753 0.547913 0.648003 167 195 141
-3.23875 -7.24927 5.23546 -0.0168095 -0.992358 -0.0685602 120 109 75
4.09591 -6.92303 4.67621 0.0557646 -0.995081 -0.0763239 128 106 65
3.54943 6.94684 3.66161 0.0595769 0.976332 -0.207911 131 106 67
5.65355 -6.43434 4.21596 -0.149518 -0.987978 0.0391133 124 97 61
5.90401 -6.84748 4.59887 0.598549 -0.787242 0.0561446 117 98 59
-0.383941 -5.47187 7.3615 -0.044328 -0.0585047 0.991892 64 85 56
6.84906 -5.33182 2.99019 0.933132 -0.290464 -0.211884 124 109 65
6.08008 2.04797 7.25424 0.0646048 -0.0104005 0.991726 67 72 45
5.13357 -6.47222 4.70203 -0.188439 -0.981072 0.0438761 97 87 57
1.8149 7.09941 4.91459 -0.11415 0.990455 -0.0772532 124 100 64
-5.94426 4.06225 6.24539 -0.494539 0.413716 0.752189 153 181 125
-0.592871 1.80931 3.69291 0.816319 0.186284 0.546737 58 51 36
-0.321477 -2.57865 4.85857 0.534133 0.737925 0.412515 54 53 34
4.89716 -3.88119 7.11622 0.416224 -0.221699 0.853531 191 212 180
-4.86861 -3.94704 7.21696 -0.191019 -0.196736 0.959333 64 78 44
6.85406 -5.09266 2.79799 0.954994 -0.218937 -0.200132 127 107 65
5.51876 -6.80319 4.81936 0.434991 -0.879803 0.0544192 114 102 64
4.82553 7.19975 4.34857 -0.0256568 0.991692 -0.126053 127 110 67
4.43929 -6.94108 4.54166 0.0419949 -0.990852 -0.128255 128 107 63
6.69963 4.65812 3.25843 0.985676 -0.00339498 -0.168617 127 107 62
4.13501 6.65741 1.75919 -0.133456 0.985801 -0.0663544 139 109 67
0.216446 -1.52997 3.31138 -0.597952 -0.438054 0.671239 38 29 23
0.0839459 -3.03766 6.64429 -0.0506267 0.816305 0.566555 93 106 77
-3.87203 -5.7113 6.73341 -0.360783 -0.721574 0.583742 58 56 37
0.40086 -1.63442 3.30919 -0.722506 -0.339334 0.602359 35 31 20
5.02008 6.18769 5.20783 0.166785 0.98271 0.0803927 35 42 28
-7.09941 1.8149 4.91459 -0.990455 -0.11415 -0.0772532 124 100 64
0.483231 -1.82967 3.61266 -0.76066 -0.24169 0.595357 59 49 35
-3.9362 5.67751 6.82209 -0.433553 0.629205 0.643382 111 109 68
4.59572 -3.39622 7.2335 0.135769 0.0183118 0.958983 78 113 70
-2.94366 6.77807 3.49788 0.0445479 0.996351 -0.0727978 123 102 61
-6.36083 -1.97764 7.19426 -0.485878 -0.0587884 0.774749 81 89 58
-2.61523 0.16247 5.24741 0.98407 0.0526534 0.161821 84 90 62
2.29169 6.89784 3.05483 0.103726 0.973523 -0.203702 127 103 63
6.30746 -5.81958 4.18368 0.972722 -0.215468 0.0859383 64 55 34
-5.45594 -0.824467 7.36079 -0.0747876 -0.00122402 0.992628 68 81 54
0.842105 -1.84834 3.88299 -0.856408 -0.128968 0.499933 69 58 32
-6.0976 -2.99289 6.74647 -0.880263 -0.457965 0.124121 107 96 64
6.06177 -6.37167 4.38677 0.910873 -0.372464 0.170596 52 44 26
-5.4664 -5.5052 5.89629 -0.363557 -0.512124 0.749853 97 113 75
-1.88906 2.55875 6.81387 0.498773 -0.572296 0.642882 131 155 109
-2.32679 -0.76703 5.22169 0.751587 0.584071 0.302345 75 77 50
-0.803867 4.50173 7.26675 0.0861031 -0.0659751 0.994099 62 77 52
6.22355 -2.20361 1.27583 0.980485 -0.106495 -0.16525 132 104 65
6.85003 4.7074 5.09783 0.973751 0.192237 0.121876 122 104 66
3.96673 -1.49506 6.94769 -0.0951844 -0.113917 0.988634 214 248 210
6.37868 -2.48601 1.67335 0.973751 -0.121876 -0.192237 127 103 66
6.93349 -4.45133 3.6243 0.98679 0.0643813 -0.148662 134 114 68
-3.91361 3.0999 7.47691 0.00800091 0.0141133 0.999693 69 84 47
-3.9803 -0.43906 7.22461 0.254087 0.0411201 0.956769 60 78 54
-1.73369 -6.28024 7.11348 0.0395629 -0.999217 0.00101443 66 68 42
-1.88273 -4.44086 7.55133 -0.0848837 -0.0219608 0.989228 74 92 52
2.56017 5.00896 7.24177 0.0321353 0.0382284 0.976906 91 114 67
2.03379 2.51385 6.81257 -0.431441 -0.46425 0.740294 250 255 248
-5.39717 3.09903 7.11195 -0.224198 0.194201 0.931381 207 210 203
-6.74157 -1.47142 6.25944 -0.989135 0.00121444 0.143771 117 106 65
6.18769 -5.02008 5.20783 0.98271 -0.166785 0.0803927 35 42 28
6.86487 -4.17621 3.26976 0.984275 0.0823211 -0.156291 131 109 65
6.4608 -0.639906 1.99102 0.982038 -0.0388111 -0.184647 127 103 62
-3.95479 -6.86616 5.78455 -0.110274 -0.744213 0.579771 144 155 124
6.34479 -6.34707 4.80012 0.861802 -0.462405 0.206454 99 91 63
2.01619 6.97694 3.68705 0.0426507 0.980942 -0.189555 124 101 61
6.06996 -5.97836 4.58423 0.94503 -0.299349 0.131554 43 42 24
-2.88553 -3.85985 7.55496 -0.0121446 -0.184567 0.972239 101 111 64
2.115 3.1265 6.93653 -0.125609 -0.0249605 0.988708 245 255 228
-6.72753 -0.885533 6.3608 -0.983723 -0.0267127 0.177697 123 105 68
4.06971 -2.87963 7.53859 0.183554 0.00948091 0.971893 141 139 79
-1.59317 0.237739 3.51163 -0.368097 0.343455 0.864027 63 65 37
-4.4544 -6.44176 5.80311 -0.116544 -0.583538 0.72502 140 139 129
-3.51703 -2.04871 7.67257 -0.0366171 0.00609562 0.999297 74 89 50
-0.878824 6.91723 3.86603 0.0742718 0.985704 -0.147994 123 100 62
6.48783 -1.1303 2.04556 0.985852 -0.0125079 -0.167151 130 105 60
1.43135 -0.903001 3.39199 0.344195 -0.126605 0.927944 242 211 191
0.877587 -2.75991 5.68874 -0.231509 0.930811 0.280026 71 82 60
-1.04677 6.64984 6.74082 0.078111 0.966463 0.183108 105 98 63
-2.96068 -6.99409 5.80176 -0.0742258 -0.934584 0.330469 107 93 52
6.89756 -2.41293 3.17122 0.972395 -0.109331 -0.206051 130 104 66
6.76378 4.36996 3.54677 0.989091 0.0588607 -0.135033 131 106 63
0.554016 -6.86199 4.8552 0.13019 -0.990803 -0.00300843 113 100 62
6.9561 -2.92969 3.64377 0.972151 -0.112275 -0.205536 125 104 67
6.71153 -3.14291 2.78835 0.97303 -0.0884573 -0.213045 130 108 68
-5.424 -4.40389 6.74941 -0.489954 -0.506493 0.699085 92 92 60
2.46409 -2.32567 6.95338 -0.297405 0.39671 0.855272 180 255 238
6.7914 -1.57276 3.03816 0.982208 -0.0363781 -0.184237 126 102 60
1.12707 -2.47297 5.7711 -0.483881 0.807488 0.309424 74 82 57
-6.7914 1.57276 3.03816 -0.982208 0.0363781 -0.184237 126 102 60
6.94684 -3.54943 3.66161 0.976332 -0.0595769 -0.207911 131 106 67
-7.17986 2.4997 5.39405 -0.992881 -0.110818 0.0436554 129 109 69
0.432573 -2.23472 4.17347 -0.148651 0.768807 0.434299 77 78 56
2.09622 -2.38839 7.26723 -0.412072 0.448543 0.770329 49 54 35
-6.76631 -1.93059 6.23183 -0.988949 -0.00673111 0.147661 119 107 65
-3.8918 6.62943 5.45913 0.0436694 0.978086 0.134544 100 92 58
6.97694 -2.01619 3.68705 0.980942 -0.0426507 -0.189555 124 101 61
6.93468 -1.16884 3.47913 0.982174 -0.0291966 -0.185691 125 105 62
-6.4608 0.639905 1.99102 -0.982038 0.0388111 -0.184647 127 103 62
-0.799873 -2.51234 7.27009 -0.309159 0.536291 0.78302 93 82 47
-6.22355 2.20361 1.27583 -0.980485 0.106495 -0.16525 132 104 65
-1.57691 1.53217 6.08589 0.867885 -0.19138 0.458421 91 84 47
-6.70655 -3.28355 5.76228 -0.96743 -0.105515 0.230098 108 102 65
-4.40472 -1.94601 7.28986 0.0454526 0.00293109 0.996865 62 77 50
-6.48783 1.1303 2.04556 -0.985852 0.0125079 -0.167151 130 105 60
-1.44036 2.63862 6.75521 0.472706 -0.650666 0.585776 73 84 61
6.95992 -2.33469 6.13347 0.946102 0.00504034 0.323707 142 136 80
5.61008 -5.49459 5.85489 0.479928 -0.354411 0.774447 102 119 82
-4.95587 -5.94761 5.85681 -0.23045 -0.452324 0.849568 101 123 87
-6.32385 3.16552 1.50438 -0.9882 0.0146818 -0.152465 123 103 65
-0.88279 5.55889 7.55704 0.0206522 0.196411 0.979922 71 93 59
-4.01971 -1.45436 7.60402 0.0547647 -0.020783 0.995204 72 90 51
2.55034 -4.9352 7.31719 -0.00430458 0.00470707 0.997861 63 76 47
-1.00644 6.79245 5.8661 -0.0380336 0.993051 0.110518 119 101 64
-6.45488 0.589618 7.20191 -0.575626 0.0154624 0.70228 144 154 122
7.15232 -2.45114 4.28976 0.978804 -0.0741702 -0.190897 129 104 65
3.50759 -6.52507 5.80293 -0.0125707 -0.970744 0.137636 100 94 62
3.98571 -2.41195 7.57154 0.245623 -0.10944 0.963032 102 118 61
7.06582 -1.2931 4.50889 0.989561 0.0352197 -0.139743 119 100 60
-3.08088 6.29401 6.39623 -0.0655521 0.997849 0.00104051 103 85 56
1.07004 -1.84791 4.21647 -0.872365 -0.0290838 0.483503 96 77 45
-5.4987 -0.877516 7.5649 -0.178022 0.0208136 0.983773 71 95 56
-4.43378 3.5736 7.26086 -0.149931 -0.0113694 0.960798 78 109 70
-1.46038 -5.92656 7.22813 -0.0419719 -0.401215 0.690299 99 104 85
-0.407793 -3.34719 6.91525 -0.0073302 0.502353 0.833452 131 147 122
7.03349 -0.393909 4.26443 0.987374 -0.0137259 -0.157315 115 99 61
-1.03736 2.77716 6.72178 0.368489 -0.713241 0.592937 65 74 60
-6.55156 3.76979 2.38002 -0.985089 -0.0359691 -0.168243 131 104 64
5.18602 5.62627 5.89264 0.388455 0.675793 0.610927 49 52 33
-6.93468 1.16884 3.47913 -0.982174 0.0291966 -0.185691 125 105 62
-4.41067 -5.89537 6.11254 -0.370918 -0.554371 0.72767 107 117 76
0.451067 3.11218 6.77721 -0.0106238 -0.64497 0.743408 175 184 158
6.92303 4.09591 4.67621 0.995081 0.0557646 -0.0763239 128 106 65
0.665473 -2.10708 4.27964 -0.816516 0.388685 0.422817 71 74 50
-6.97694 2.01619 3.68705 -0.980942 0.0426507 -0.189555 124 101 61
-5.02008 -6.18769 5.20783 -0.166785 -0.98271 0.0803927 35 42 28
7.04826 -0.904042 4.63131 0.991892 0.0533166 -0.10913 117 98 61
-6.50385 -2.47314 6.75757 -0.956597 0.00750634 0.160794 109 93 60
6.04371 -4.89227 5.82152 0.525558 -0.24517 0.775993 80 115 77
-2.10147 6.8128 5.21809 0.00102634 0.998629 0.0523433 126 104 63
-6.89784 2.29168 3.05483 -0.973523 0.103726 -0.203702 127 103 63
-3.41256 -2.90609 7.30002 0.0821367 -0.00250092 0.992773 75 93 61
-2.29288 1.4943 5.31724 0.843605 -0.510883 0.157842 255 255 255
-0.0406433 6.90761 3.66332 0.0533276 0.982413 -0.178944 122 99 61
-7.06582 1.2931 4.50889 -0.989561 -0.0352197 -0.139743 119 100 60
-2.37108 -4.38713 7.4823 -0.016831 0.0148738 0.996818 89 106 57
0.0709241 -6.86063 5.79977 0.0784455 -0.987969 0.132383 119 99 64
-7.0401 0.525896 4.34736 -0.98861 0.00334366 -0.150465 115 98 61
-6.74914 3.34113 6.13528 -0.718619 0.289688 0.632193 255 255 255
-6.95273 3.0484 3.74511 -0.973392 0.103979 -0.204199 121 103 65
6.79986 1.19271 4.77284 0.994985 0.0932455 0.0362012 124 102 63
3.63481 0.592948 7.13341 -0.413453 -0.109998 0.886292 65 83 64
-1.40674 -6.85567 6.3256 0.0266834 -0.963255 0.262265 122 112 73
0.00137269 -6.79168 6.35984 0.056387 -0.973212 0.219726 122 106 69
-7.0184 0.551221 4.71413 -0.992825 -0.0550076 -0.100452 116 99 61
2.5771 2.08206 7.26259 -0.333672 -0.325645 0.859045 49 57 39
-3.8019 -6.31093 6.12779 -0.412461 -0.44183 0.79545 255 255 255
6.00593 1.58109 7.24842 0.151073 0.00170926 0.988456 66 76 48
-7.17931 1.77247 4.42991 -0.986817 -0.00791263 -0.161644 125 101 60
-6.79375 -2.90322 5.64236 -0.987943 -0.0616787 0.141969 123 109 65
4.08343 2.05789 7.29008 -0.0645229 -0.0272164 0.995236 65 79 53
-3.95439 2.56678 7.56494 -0.24791 0.0937631 0.964123 104 117 63
5.09266 6.85406 2.79799 0.218937 0.954994 -0.200132 127 107 65
0.0934278 -2.46731 4.73035 -0.0483917 0.911489 0.277277 74 76 54
-1.42349 6.78232 4.76482 -0.0650396 0.996476 0.0308155 124 103 62
6.98283 -0.926847 5.2804 0.990026 0.109632 0.0503913 117 100 62
-7.10161 3.48376 4.29306 -0.980711 0.0577449 -0.185399 127 108 69
5.57547 -0.900346 7.37093 0.0717412 -0.055929 0.991256 74 91 62
-4.01408 6.65299 2.52365 -0.0292593 0.995899 -0.0856105 127 98 61
1.5827 1.71198 6.16038 -0.217047 -0.837027 0.490878 94 83 49
-7.14064 2.72458 4.54285 -0.978436 0.0869449 -0.18736 131 105 69
-1.47142 6.74157 6.25944 0.00121444 0.989135 0.143771 117 106 65
-1.83386 -2.92262 7.33073 0.245654 0.281972 0.904849 45 55 35
-4.08233 -6.47577 5.8796 -0.0663545 -0.863721 0.491523 51 48 31
-6.71153 3.14291 2.78835 -0.97303 0.0884573 -0.213045 130 108 68
1.29151 -2.47305 5.28962 -0.478768 0.846584 0.232545 89 107 83
4.55828 1.0447 7.62628 -0.0482272 0.0365977 0.997251 79 100 53
-6.3516 5.98014 5.24032 -0.882378 0.391631 0.258377 69 67 47
-6.65741 4.13501 1.75919 -0.985801 -0.133456 -0.0663544 139 109 67
0.119165 -6.46246 6.38109 -0.119691 -0.992205 -0.0346768 88 75 49
-3.29337 -0.434743 6.88718 0.682734 0.104445 0.697448 76 88 66
-1.40393 1.01438 3.38481 -0.325645 0.0956631 0.939399 255 254 255
-0.308653 1.58219 3.31028 0.660229 0.388694 0.636799 37 30 22
5.21104 -4.91393 6.31546 0.571796 -0.351659 0.737837 131 150 102
-2.74061 1.08207 6.43953 0.837719 -0.262364 0.477456 255 244 161
-1.35578 -3.99066 7.5688 -0.0875854 0.0428626 0.995212 63 77 49
0.0470033 1.71041 3.44596 0.472811 0.342095 0.802423 60 54 36
0.966769 -6.80953 5.76649 0.0448695 -0.993767 0.0998198 118 100 63
6.94541 4.72795 4.26512 0.987754 0.0262034 -0.153803 133 109 62
-4.30312 6.5796 2.23728 -0.0651844 0.995443 -0.0696037 127 98 61
-0.440882 -3.93046 7.17387 -0.0351904 0.222421 0.970004 80 98 71
-0.373591 1.85003 3.5324 0.705002 0.297096 0.643977 60 46 34
0.139655 -3.29343 6.92442 -0.0356499 0.705517 0.689343 73 87 63
1.55078 -6.58658 6.85 -0.0380231 -0.96502 0.197522 111 103 69
-6.38798 -1.44912 7.26568 -0.808786 -0.0113441 0.521082 107 113 85
2.63789 3.54006 7.47263 -0.00937568 -0.0380868 0.99911 69 86 49
6.77141 3.99248 3.84675 0.994917 0.03185 -0.0944375 129 105 62
-5.41774 -2.91668 7.29668 0.00332383 -0.022206 0.995566 67 75 46
-1.47668 -3.37964 7.37029 0.111192 0.205184 0.950948 52 63 39
0.0401794 -4.43406 7.27271 -0.0309115 0.121706 0.98974 64 81 55
4.6354 -2.4133 7.46062 0.0353143 -0.0514739 0.991859 70 96 51
-6.86487 4.17621 3.26976 -0.984275 -0.0823211 -0.156291 131 109 65
-3.04505 6.85188 3.16699 0.0687307 0.993637 -0.087611 116 98 58
-6.85406 5.09266 2.79799 -0.954994 0.218937 -0.200132 127 107 65
4.43705 1.5999 7.60351 -0.0911559 0.0273358 0.995365 78 95 51
-6.84907 5.33182 2.99019 -0.933132 0.290464 -0.211884 124 109 65
-1.39965 2.55713 6.26628 0.528324 -0.747984 0.39142 84 92 65
5.59269 -1.92369 7.3013 0.0636591 -0.0864842 0.989511 105 129 99
-6.93349 4.45133 3.6243 -0.98679 -0.0643813 -0.148662 134 114 68
2.19974 6.75793 6.49236 0.0276725 0.910559 0.412453 158 137 84
3.04933 2.55009 7.27669 -0.138564 -0.083385 0.980342 80 100 65
-5.48576 4.17055 6.40688 -0.5512 0.408198 0.725688 162 172 116
-3.9411 0.564133 7.18705 0.212428 0.0302296 0.971977 81 97 69
-1.53016 0.555678 3.45184 -0.385935 0.23072 0.892104 161 90 56
6.31214 2.52128 1.43141 0.986681 -0.12942 -0.0985493 122 103 59
-7.25479 4.00169 4.66695 -0.986295 -0.0147967 -0.161146 131 105 68
2.5952 -6.54738 6.2845 -0.0157565 -0.970117 0.141184 110 93 59
-5.73285 6.94578 4.31319 -0.797509 0.540551 0.267925 41 37 19
-5.92561 6.59921 4.7927 -0.75998 0.606474 0.169069 96 88 56
-0.462214 2.19439 4.15676 0.362546 -0.659615 0.431222 74 77 55
-2.38619 -2.99173 6.97292 0.171892 -0.00726029 0.982904 200 250 171
-4.65812 6.69963 3.25843 0.00339498 0.985676 -0.168617 127 107 62
3.62457 -3.49818 7.25782 0.00187249 0.0832027 0.990906 67 82 51
-6.30746 5.81958 4.18368 -0.972722 0.215468 0.0859383 64 55 34
-0.929215 2.01535 4.35669 0.859346 -0.186462 0.450739 83 76 46
5.57621 5.76814 5.38803 0.30502 0.888013 0.344086 38 41 26
3.0795 0.521521 6.729 -0.777645 -0.164335 0.592182 78 88 66
-3.96214 6.85 3.59066 -0.0209608 0.993508 -0.111247 128 101 63
-6.88893 -0.435081 4.80273 -0.991201 -0.124206 -0.0212787 114 99 62
-3.55809 -1.5196 7.67524 -0.0529384 -0.00835837 0.99846 64 81 50
-6.75663 -1.47756 5.78208 -0.996042 -0.00427643 0.0878266 119 104 64
-0.398162 6.8427 5.8829 -0.0752426 0.98973 0.121546 120 100 64
-3.89949 -4.3549 7.31358 -0.0670903 -0.178785 0.960567 80 111 78
0.140163 -3.97006 7.64294 0.00880394 -0.0217583 0.996359 80 91 51
3.97238 -6.74525 5.46858 0.061015 -0.967524 0.245305 116 104 67
-5.57388 6.39609 4.24817 0.148713 0.98796 0.0426541 124 99 60
-3.99248 6.77141 3.84675 -0.03185 0.994917 -0.0944375 129 105 62
3.57677 -6.11398 6.27186 0.256748 -0.953184 0.104876 118 106 76
-1.91255 6.50947 2.24991 0.107177 0.983858 -0.143304 125 101 59
-0.922071 -5.43669 7.35832 -0.0780424 -0.0512671 0.987785 73 91 61
-6.52507 -3.50759 5.80293 -0.970744 0.0125707 0.137636 100 94 62
-0.939066 -5.93244 7.31985 0.0831884 -0.360919 0.676307 68 79 52
2.99594 7.28189 4.88884 0.086102 0.981078 -0.173417 131 107 72
4.49353 2.42708 7.58589 -0.0549864 -0.00723225 0.9984 74 91 46
-6.97776 1.12575 5.3157 -0.98553 -0.136378 0.0699331 119 100 64
-5.90835 6.46929 4.30473 -0.548156 0.595173 0.137535 74 60 37
4.01345 5.52804 6.74041 0.398446 0.638719 0.649379 91 93 63
-5.43451 6.57061 4.79685 -0.173583 0.821346 0.106068 83 71 47
1.99107 -6.59746 6.80816 -0.0265019 -0.97077 0.143425 109 99 62
-6.80704 -0.518476 5.7789 -0.991487 -0.068625 0.109815 120 101 64
-0.66632 6.65548 2.73449 0.0787369 0.979971 -0.182912 124 101 61
-3.76285 6.65686 2.75565 -0.00105859 0.996132 -0.0878629 126 102 66
5.56784 6.03606 5.29931 0.324367 0.90219 0.269963 43 45 30
-4.84587 6.92001 4.18526 -0.00442004 0.985259 -0.168927 132 110 62
4.61107 -6.15552 5.90784 0.441376 -0.897244 0.0118579 111 113 79
-3.8597 5.96255 6.70245 -0.422609 0.686164 0.589009 94 93 60
-2.75803 6.80487 2.69981 0.136144 0.984332 -0.112048 114 98 58
6.90611 0.700253 3.88274 0.983294 -0.0828416 -0.162081 124 100 62
-6.06996 5.97836 4.58423 -0.94503 0.299349 0.131554 43 42 24
2.51633 0.628171 5.37794 -0.878769 -0.339326 0.273025 74 79 53
3.48376 7.10161 4.29306 0.0577449 0.980711 -0.185399 127 108 69
2.51429 -2.46825 7.27395 -0.264617 0.25527 0.913629 74 90 62
4.534 -6.41041 5.8371 0.256253 -0.74173 0.541868 89 90 66
6.12321 -3.97466 5.90828 0.993737 -0.0429319 0.0911293 41 43 28
-4.33742 6.93675 4.54891 -0.0613558 0.991663 -0.11017 128 106 64
-1.19938 -2.71882 6.44071 0.29853 0.826818 0.47671 255 255 172
6.81465 2.54913 3.86656 0.996986 -0.0453631 -0.062672 129 104 62
-4.95269 6.48861 5.37727 0.00815504 0.890451 0.250557 92 89 62
-2.50865 6.80059 2.80791 0.140007 0.982486 -0.122963 119 100 59
-5.41591 6.98512 4.41271 -0.107611 0.983007 -0.148721 120 100 63
-0.275544 6.92332 3.59196 0.0660537 0.981198 -0.181348 120 100 62
-3.46171 6.85611 3.93274 -0.0147005 0.997981 -0.0608591 128 105 64
6.77355 1.53889 4.76081 0.997222 0.0509367 0.0281227 125 104 62
-3.20994 6.75149 3.32162 0.0225259 0.996504 -0.0804497 118 101 62
3.51703 2.04871 7.67257 0.0366171 -0.00609562 0.999297 74 89 50
-1.93288 -7.1069 5.22579 0.163897 -0.98461 0.0234128 124 103 66
3.00462 3.07665 7.26801 -0.0863856 0.00700267 0.991432 86 114 79
-2.44598 6.8399 3.29624 0.110033 0.987265 -0.113598 121 102 62
1.77519 -2.6713 7.43134 0.0194362 0.0276199 0.99943 48 49 28
-0.946802 6.85519 4.32915 0.00246188 0.995667 -0.088537 121 102 63
-3.47791 5.43056 7.22096 -0.228139 0.0834985 0.968717 65 71 44
-1.27575 6.75915 3.19582 0.11142 0.980744 -0.160396 126 98 61
-0.561821 6.74383 6.27223 -0.0461141 0.981386 0.183737 121 103 70
-4.91295 -5.44739 6.19112 -0.327429 -0.545521 0.75351 122 138 94
1.08866 -5.56434 7.5569 -0.00808307 -0.191428 0.981417 71 95 57
-2.41694 6.89536 3.63157 0.104176 0.989088 -0.104176 124 102 61
-0.924657 -6.86277 6.23947 0.0348931 -0.9738 0.223915 111 104 74
-2.54913 6.81465 3.86656 0.0453631 0.996986 -0.062672 129 104 62
-1.36027 6.85124 3.71386 0.0734691 0.988546 -0.131733 125 101 63
-3.06341 -1.40087 7.2577 0.273787 0.168478 0.898116 59 68 44
-3.96822 -5.43132 6.7533 -0.400372 -0.588419 0.694895 132 138 97
-3.82002 3.32781 7.55344 -0.240329 0.0402582 0.969856 91 109 54
-6.4087 2.04667 6.69796 -0.925608 0.0734892 0.152775 106 90 59
0.0986573 2.4524 4.77186 -0.408545 -0.810816 0.405395 65 65 44
-3.49442 -6.09438 6.29113 -0.0671247 -0.849606 0.228962 79 88 64
-1.54547 6.8609 4.2001 0.0150149 0.996465 -0.0822611 126 103 63
-2.36262 -1.85305 6.36332 0.678245 0.623538 0.381393 132 157 114
6.59746 1.99107 6.80816 0.97077 -0.0265019 0.143425 109 99 62
-1.47416 -2.50278 6.35106 0.487218 0.721389 0.440088 214 214 186
-2.03303 6.87467 3.90148 0.069118 0.992815 -0.097374 122 103 61
4.17407 7.28961 5.12231 -0.101585 0.991883 -0.0764743 126 113 69
-2.38704 6.80753 4.29838 -0.0120683 0.999458 -0.0172584 129 105 64
1.01438 1.40393 3.38481 0.0956631 0.325645 0.939399 255 254 255
6.4211 2.08295 7.12939 0.819114 0.118691 0.561217 104 116 76
1.76554 1.09111 4.15547 0.0949512 -0.868733 0.486094 97 74 44
6.31671 2.31005 1.48098 0.984178 -0.124076 -0.126486 125 105 58
1.98771 5.99793 7.22235 0.0033827 0.56481 0.608012 112 117 99
6.50947 1.91255 2.24991 0.983858 -0.107177 -0.143304 125 101 59
-2.91083 6.19419 6.73512 -0.184192 0.95795 0.0781169 106 93 59
-1.42329 -2.91115 7.32752 0.122036 0.381834 0.860303 44 52 33
6.42539 5.18715 5.57977 0.753479 0.184253 0.498407 93 93 66
-4.9304 2.54628 7.27992 -0.0527831 0.0498299 0.976667 87 113 67
6.80273 2.63334 2.75386 0.983409 -0.138076 -0.117505 117 99 59
-3.21663 -3.63005 7.01866 0.178157 -0.0483737 0.982812 60 96 57
1.97764 -6.36083 7.19426 0.0587884 -0.485878 0.774749 81 89 58
1.64598 7.06672 5.14435 -0.190438 0.981365 0.00714641 124 101 67
6.65462 3.09152 2.10811 0.989004 -0.115598 -0.0922447 115 97 58
-0.395967 -2.60581 5.12015 0.0475907 0.987681 0.139856 95 101 74
1.63442 0.40086 3.30919 0.339334 -0.722506 0.602359 35 31 20
3.02021 -6.64859 5.9136 0.113028 -0.968996 0.219707 112 103 65
6.10237 -1.43232 7.18478 0.534606 -0.0192098 0.575989 97 99 79
1.85003 0.373591 3.5324 0.297096 -0.705002 0.643977 60 46 34
5.01029 4.05468 7.19994 0.276653 0.34672 0.88814 86 105 74
-2.94259 3.05603 7.27615 0.00068764 -0.111773 0.989356 86 111 75
-0.873011 -6.73856 6.69655 0.0191242 -0.936303 0.344534 131 124 84
6.85 3.96214 3.59066 0.993508 0.0209608 -0.111247 128 101 63
6.68034 3.6239 2.8691 0.996308 -0.00748103 -0.0850511 126 102 66
6.91546 0.158094 3.62764 0.981806 -0.0596907 -0.180146 121 100 62
6.75915 1.27575 3.19582 0.980744 -0.11142 -0.160396 126 98 61
-4.8024 -1.01549 7.63363 -0.0110094 -0.0130111 0.999855 78 104 56
6.47222 5.13357 4.70203 0.981072 -0.188439 0.0438761 97 87 57
1.63366 -4.45726 7.25263 0.0479084 0.0703377 0.996278 67 83 53
6.89885 1.05757 3.84697 0.987611 -0.0694606 -0.137639 124 100 62
3.57082 -5.9665 6.78211 0.392645 -0.759043 0.496444 105 100 64
1.93028 1.04898 4.27746 -0.0367837 -0.875997 0.480913 94 79 45
-5.82887 -5.86026 5.64467 -0.449389 -0.584734 0.621535 80 85 61
1.80931 0.592871 3.69291 0.186284 -0.816319 0.546737 58 51 36
6.51589 -1.4077 6.82065 0.961569 -0.0311798 0.140831 107 96 62
6.83126 2.48285 4.74495 0.999457 0.00938087 0.0265994 128 105 65
6.85188 3.04505 3.16699 0.993637 -0.0687307 -0.087611 116 98 58
1.02411 -2.94079 6.75211 -0.320552 0.71249 0.606913 71 82 62
2.606 -0.892113 5.74463 -0.860394 0.353014 0.275175 120 156 126
2.60756 4.64945 6.97328 -0.0898584 -0.17126 0.979123 64 82 49
-1.91795 1.98811 5.46817 0.726703 -0.662176 0.182828 162 212 190
6.80498 1.75885 3.38683 0.988249 -0.0806972 -0.129817 127 104 63
4.17621 6.86487 3.26976 -0.0823211 0.984275 -0.156291 131 109 65
-4.94985 1.59108 7.23356 0.101705 0.0926652 0.980428 64 86 52
6.83805 2.11434 3.18332 0.984862 -0.116371 -0.128352 120 103 62
-6.44244 -5.03517 4.77339 -0.979681 0.194504 0.0489244 92 87 57
3.55855 -3.95538 7.32414 0.00439573 0.00715842 0.995772 65 77 47
0.639906 6.4608 1.99102 0.0388111 0.982038 -0.184647 127 103 62
-2.83693 6.83607 4.71036 -0.0152829 0.999505 0.0275093 124 107 64
6.87467 2.03303 3.90148 0.992815 -0.069118 -0.097374 122 103 61
-5.96017 -2.00844 7.24711 -0.0672686 0.00467874 0.991718 68 76 47
6.76478 3.0768 3.40975 0.996428 -0.0335369 -0.0766237 121 102 62
3.75633 5.69567 6.51605 0.497042 0.450805 0.741434 184 178 132
1.16884 6.93468 3.47913 0.0291966 0.982174 -0.185691 125 105 62
1.1303 6.48783 2.04556 0.0125079 0.985852 -0.167151 130 105 60
2.20361 6.22355 1.27583 0.106495 0.980485 -0.16525 132 104 65
6.89536 2.41694 3.63157 0.989088 -0.104176 -0.104176 124 102 61
-2.95384 -1.99336 7.27759 0.209769 0.175334 0.941103 62 78 50
6.85611 3.46171 3.93274 0.997981 0.0147005 -0.0608591 128 105 64
-4.77444 5.86466 6.27 -0.566251 0.46603 0.679835 47 41 20
6.90955 5.85721 4.55642 0.865851 0.500299 0.00133413 121 98 57
2.48601 6.37868 1.67335 0.121876 0.973751 -0.192237 127 103 66
2.06954 5.10619 7.2158 0.0728529 -0.0400667 0.980894 76 106 57
6.85016 2.64782 3.4857 0.989986 -0.0986504 -0.100972 125 102 62
3.16552 6.32385 1.50438 0.0146818 0.9882 -0.152465 123 103 65
6.80064 2.0598 4.168 0.99946 0.0080998 -0.02839 127 106 64
-1.56475 -2.06615 6.75685 0.236223 0.764987 0.599161 75 70 48
3.76979 6.55156 2.38002 -0.0359691 0.985089 -0.168243 131 104 64
4.53954 -0.438168 7.6275 -0.00470446 -0.0368725 0.99929 65 79 49
-2.37085 -1.45252 5.28301 0.805832 0.545143 0.223895 105 118 93
2.42276 0.074204 4.73248 -0.870999 0.12208 0.342877 71 72 50
6.85788 0.933218 4.77208 0.995448 0.07834 0.0100349 116 102 62
-6.39729 -5.46461 5.22278 -0.94283 -0.054973 0.154208 102 101 69
1.12205 5.60635 7.33417 0.0650897 0.0440397 0.992116 73 96 64
6.85138 3.32658 4.41782 0.999702 0.0191668 -0.0151317 129 108 64
6.81253 2.59183 4.47521 0.999626 0.0271802 0.00302002 129 104 63
-4.29984 -6.01395 5.92925 -0.0671938 -0.976143 0.206468 37 40 26
6.81298 3.09741 4.55295 0.999108 0.0419277 0.00511314 133 109 64
-1.89621 2.10657 5.77146 0.70014 -0.676164 0.226237 107 180 160
3.14291 6.71153 2.78835 0.0884573 0.97303 -0.213045 130 108 68
-4.27977 3.01553 7.52824 -0.043067 -0.161792 0.985885 219 192 110
-5.87927 1.03425 7.30444 -0.123999 0.0639312 0.983975 82 107 78
-7.19975 4.82553 4.34857 -0.991692 -0.0256568 -0.126053 127 110 67
1.06454 -2.85739 6.23159 -0.317637 0.873053 0.362782 81 88 62
